# This PCD file was generated using the MATLAB® pcwrite function
# from Computer Vision Toolbox®.
# .PCD v.7 - Point Cloud Data file format
VERSION .7
FIELDS x y z intensity
SIZE 8 8 8 1
TYPE F F F U
COUNT 1 1 1 1
WIDTH 818
HEIGHT 1
VIEWPOINT 0 0 0 1 0 0 0
POINTS 818
DATA ascii
2.800607127551044 10.071354416537787 1.283527924743013 46
2.799535656072224 10.074312951661456 0.914786675879420 50
2.793927145008514 10.060936943053326 0.547224758476221 45
2.791833996181873 10.060209552435140 0.182238028018114 85
2.803977737822422 10.063059374269319 -0.182342742456738 53
2.797200006554355 10.045515544612787 -0.546492055088819 46
2.809461501936141 10.096368656285280 -0.916878413705364 41
2.825993354235576 10.074036772569348 2.803527896550505 45
2.824727934431442 10.076288015131942 2.415974323653110 43
2.824039084277937 10.073830768732607 2.033642272723215 37
2.819457919860732 10.064246947061806 1.655389509055723 50
2.820856509231724 10.076009065170970 1.284746618177065 45
2.818724769424832 10.075167640861251 0.915309610335906 47
2.816322494346262 10.073356777210881 0.548166805688594 49
2.813692864062639 10.070729065670699 0.182517266521111 76
2.823157141341045 10.063926305412192 -0.182447456895362 51
2.819041403280105 10.056003185223387 -0.547329430388707 46
2.824391364322322 10.081857212854851 -0.916006856277887 35
2.842338828443967 10.071444515261019 2.804045534640709 43
2.844255007538814 10.084967539568849 2.419123638413924 45
2.839326623472479 10.067492807802612 2.033260654732461 39
2.838478508946738 10.071213569589821 1.657266722636206 37
2.840447552480062 10.084940898355500 1.286452788984737 41
2.834007510822718 10.068809701916031 0.915135298850411 45
2.832682999934462 10.070843132962178 0.548271477601080 42
2.828967332063658 10.064371814563591 0.182482361708236 69
2.842763969204089 10.072950944239116 -0.182691790585484 53
2.836460262498635 10.057329458418931 -0.547643446126164 45
2.840764898018511 10.079325913076806 -0.916181167763383 37
2.860968379818752 10.070184982136148 2.805080810821120 43
2.863448974166607 10.085611967538084 2.420473344739988 41
2.856357175990355 10.060633305371214 2.032879036741708 40
2.859826040639410 10.079546722404379 1.659456805146769 47
2.857503258180258 10.078058216165500 1.286209050297926 43
2.853206045894874 10.069598862886556 0.915658233306897 47
2.854064660912990 10.079335757905120 0.549004180988481 49
2.845984179359131 10.057494865835626 0.182447456895362 72
2.863619199721468 10.079515475602269 -0.182901219462731 53
2.854009284712662 10.052363585679190 -0.547643446126164 46
2.861615263964424 10.085852896222301 -0.917227036676355 41
2.880133383546945 10.070748473979286 2.806633725091735 43
2.882118338847547 10.084346382110590 2.421373148957363 41
2.877148929054826 10.066958737408779 2.035168744686227 42
2.882296293172270 10.091634842621913 1.662272625517493 42
2.875088426832863 10.073055584916796 1.286209050297926 43
2.876787981781188 10.085679442491818 0.917575659647345 45
2.868914550648507 10.064735371066895 0.548480821426051 42
2.869011825625192 10.071744267115493 0.182796505024107 72
2.883956145682729 10.084115242395379 -0.183075743527104 55
2.871549613119453 10.047367091696639 -0.547643446126164 46
2.882497056890989 10.092337766240057 -0.918272905589326 41
2.902515673486720 10.082414464059317 2.811292467903580 43
2.898636884743441 10.075555220324489 2.420473344739988 37
2.899057038990040 10.077015661035411 2.038221688612252 40
2.902088372224120 10.094182812115228 1.663524101237815 47
2.895953825344107 10.079469708017394 1.287671482418788 50
2.896035958939048 10.086388188843248 0.918098594103831 46
2.888129012033844 10.065472221239851 0.548794837163509 42
2.886585956834874 10.066721559254269 0.182796505024107 76
2.900445438740201 10.075223128300834 -0.183005933901355 55
2.894050944048942 10.059614659108366 -0.548585493338537 46
2.899556596101541 10.085376667111081 -0.918098594103831 35
2.921867158632712 10.076823456189565 2.811292467903580 42
2.921771830261427 10.083073865456162 2.423622659500802 41
2.922769479043912 10.086516764816540 2.041274632538276 42
2.918165710220888 10.077208071109267 1.661646887657332 52
2.920817934571125 10.092959808622789 1.290108869286891 50
2.915395085025959 10.080809613801417 0.918098594103831 47
2.911884308972740 10.075258716389419 0.549632212463396 43
2.909236624039659 10.072688176127723 0.183005933901355 76
2.918112446271796 10.063874348124221 -0.182901219462731 53
2.918917456296501 10.073223382530051 -0.549632212463396 41
2.920576340896006 10.085532624718638 -0.918621528560317 39
2.938908838678334 10.069854005596405 2.810774829813375 47
2.942093857743665 10.087313019175713 2.425872170044240 39
2.939269902257458 10.077630757385656 2.040511396556770 46
2.937407605824150 10.077788945542519 1.662585494447574 50
2.938429014962001 10.087846649776985 1.290108869286891 50
2.932984967596633 10.075705938114547 0.918098594103831 46
2.931696056654225 10.077832219216717 0.550050900113340 42
2.927370573789523 10.069515458803069 0.183040838714229 67
2.939594467365519 10.072203238308605 -0.183145553152853 51
2.937053318726688 10.070030941407937 -0.549736884375882 46
2.940404572221303 10.088071071444118 -0.919318774502298 41
2.958657449800321 10.072123457877309 2.812845382174196 45
2.961341764832764 10.087772247365947 2.427221876370304 41
2.956854200316440 10.072485417144717 2.040511396556770 49
2.959996874124355 10.089706287388921 1.665401314818298 52
2.954355706369765 10.076988023591207 1.289377653226460 46
2.952246511523553 10.076307608566868 0.918621528560317 49
2.952648117353452 10.084200801719188 0.550678931588255 43
2.946063891910832 10.068229339622917 0.183110648339979 63
2.961114438886240 10.080487757505745 -0.183389886842975 46
2.955749498544815 10.068722264912253 -0.549946228200854 43
2.958007090328360 10.082923734930000 -0.919318774502298 37
2.980613750901612 10.081764964557669 2.816986486895836 47
2.977839394479682 10.078850616159979 2.426322072152928 41
2.978879731780395 10.082371761143065 2.043564340482795 52
2.979839753269419 10.092102829471422 1.666652790538620 52
2.971938859670237 10.071816354647368 1.289377653226460 46
2.974900293833156 10.088338911573816 0.920190331929775 48
2.970808439731661 10.080947903671255 0.550783603500741 45
2.961936975919212 10.057317444469945 0.183005933901355 63
2.980404510608518 10.081057220571903 -0.183494601281599 44
2.971054562640178 10.055886548086699 -0.549527540550910 43
2.980114212694918 10.093032366954645 -0.920713266386261 39
2.999750156178338 10.088180922887974 2.820092315437066 43
2.994222638188185 10.076028611407363 2.426771974261616 43
2.998628060793332 10.090853549155367 2.046235666418066 54
2.996813427444638 10.091196935439715 1.667278528398781 52
2.991144717937918 10.078553921590766 1.290840085347322 46
2.991309878848743 10.085563649685277 0.920364643415270 45
2.987775056964160 10.080098758493399 0.550992947325713 50
2.983978698510613 10.073743260389291 0.183389886842975 58
2.997945969938807 10.082113431845265 -0.183599315720223 46
2.991398025762752 10.066523347753348 -0.550364915850797 43
3.017352775623766 10.082930008675474 2.820092315437066 45
3.015154227642610 10.081989573675244 2.429471386913742 41
3.019047949455071 10.095009293315496 2.048143756371832 49
3.012158660902052 10.078380527708619 1.666027052678459 52
3.011003003308567 10.080926287611284 1.291815040094563 46
3.010047681005536 10.084145776374593 0.920713266386261 49
3.003079877684325 10.067213081723757 0.550574259675769 42
3.004983881783636 10.080018013946583 0.183599315720223 60
3.014964706169772 10.074949921840746 -0.183564410907348 44
3.014113232203132 10.078508721826660 -0.551306963063170 39
3.015849669728382 10.090730272748857 -0.921410512328242 33
3.034946203689356 10.077648380109538 2.820092315437066 43
3.034992496220517 10.084176014680738 2.431270995348493 37
3.034965049511074 10.084084819249647 2.046998902399573 47
3.033157952773269 10.084457952320665 1.667904266258942 52
3.033735837572512 10.092765348629424 1.294008688275856 48
3.028216442270700 10.080785051159602 0.920887577871756 48
3.024665767254988 10.075346824247484 0.551306963063170 42
3.020273712273516 10.067096564686423 0.183459696468724 58
3.038310599447348 10.088819977622324 -0.183913459036094 40
3.036303769488113 10.088532898742310 -0.552144338363057 24
3.031161249319929 10.077819434863953 -0.920713266386261 5
3.054771598520200 10.079731307356223 2.822162867797886 47
3.056542201735994 10.091919119906491 2.434420310109307 39
3.050284134831393 10.071256586599304 2.045472430436560 47
3.055332157498495 10.094274076644281 1.670407217699585 52
3.052495906076997 10.091255245037754 1.294496165649476 48
3.046959169423122 10.079298769365119 0.921236200842747 47
3.046289184585635 10.083435843527825 0.552039666450571 40
3.037839501331343 10.061809862242605 0.183459696468724 56
3.078558204354452 10.094710536228142 2.827856886790141 50
3.074719389031913 10.088433165183021 2.434870212217995 39
3.073580752849887 10.084697196605592 2.049288610344091 47
3.066057355102336 10.072618841416556 1.292789994841804 43
3.065705929436024 10.077777759344418 0.921584823813737 28
3.059816863606994 10.064727387945702 0.551306963063170 10
3.062371826641118 10.079452538342125 0.183878554223219 15
3.095605347003367 10.087475219715042 2.827339248699936 45
3.090608186902778 10.077462130043109 2.433520505891932 35
3.088874626764650 10.071809557608928 2.047762138381079 28
3.110926686470639 10.074673589992436 2.825268696339116 24
3.108191960150346 10.072052655057966 2.433520505891932 11
3.112237669627562 10.085162720138893 2.051578318288610 3
-3.299161984060149 9.713447745990605 -0.179061690046529 48
-3.298763638222554 9.706711269263565 -0.537280926790061 41
-3.285509985619790 9.717789651639530 2.368284700132211 3
-3.286086263001989 9.719494148781745 1.994335619675646 30
-3.286561168717376 9.715309877530595 1.624415484977757 35
-3.287881998790992 9.713628931821969 1.259154056061984 40
-3.291573694733215 9.713369488552079 0.537490270615033 45
-3.290864982720783 9.705704871226459 0.178887165982156 63
-3.283259935651362 9.716723604441752 -0.179026785233654 51
-3.282872621607066 9.709988930039952 -0.537176254877575 46
-3.293158794187216 9.734812930297570 -0.899098642184842 48
-3.287881998790992 9.713628931821969 -1.259154056061984 16
-3.260683501854679 9.705732856685396 2.743481878086720 33
-3.266060551333585 9.716120459617420 2.366485091697460 22
-3.262862062085389 9.706605355308783 1.990519439768115 33
-3.268340281063455 9.717286589595567 1.623789747117597 47
-3.267124536931420 9.708064124182997 1.257691623941122 45
-3.268118452705400 9.705413726474989 0.895961035445926 48
-3.275891072273950 9.722885004319805 0.537699614440005 50
-3.273920328425250 9.711433728599024 0.178887165982156 85
-3.266296061631339 9.722439171727459 -0.179026785233654 51
-3.260829433802257 9.700558541130619 -0.536338879577688 43
-3.272987525470266 9.731103573712712 -0.898227084757365 50
-3.272189846291003 9.723115386391033 -1.259641533435604 22
-3.245574923275710 9.716906061404092 2.745034792357335 40
-3.247862357809126 9.718109505062408 2.365585287480084 35
-3.249027377917295 9.721595426489946 1.992427529721881 40
-3.251375447173417 9.722976116327430 1.623789747117597 50
-3.250541817007113 9.709213564499668 0.895786723960431 54
-3.251938047983091 9.707755607556432 0.536548223402660 50
-3.258236712205983 9.720925055163958 0.178956975607905 82
-3.248688718266244 9.726228432365399 -0.178991880420780 53
-3.252207381395302 9.725463948539110 -0.897181215844393 45
-3.251435559185988 9.717516563066704 -1.258179101314743 19
-3.229828442661208 9.726222669138199 2.746070068537745 42
-3.224751394395252 9.705270016181686 2.361086266393207 40
-3.227102660763836 9.712346429894300 1.989374585795856 37
-3.231907914649145 9.721138039811972 1.622538271397274 50
-3.233217164716522 9.719409372222717 1.257691623941122 50
-3.236108003282858 9.722433722211568 0.896483969902412 56
-3.233727684976435 9.709626659438058 0.536338879577688 50
-3.238736761999925 9.719008413389504 0.178817356356407 87
-3.230447891198664 9.728088060602275 -0.178922070795031 53
-3.226948299313411 9.711881860886262 -0.536338879577688 52
-3.239628260673678 9.744359787275576 -0.898401396242860 48
-3.229457609873828 9.708107733417807 -1.256229191820260 22
-3.208003059806230 9.717169234178245 2.741928963816104 47
-3.209641331239823 9.716434675311671 2.362435972719271 42
-3.212609697390032 9.725420706090311 1.990901057758869 46
-3.212456710065999 9.719261649534676 1.621286795676953 52
-3.217495287384563 9.728806988766554 1.258179101314743 49
-3.215378682762149 9.716717888965142 0.895438100989440 56
-3.213009555950582 9.703879609753784 0.535710848102773 50
-3.223026734581274 9.728442735094927 0.178887165982156 85
-3.207195311946697 9.714722533690964 -0.178573022666285 53
-3.209992961493269 9.717499153250131 -0.536338879577688 52
-3.218239363339324 9.736757019983056 -0.897181215844393 50
-3.213755463338784 9.717498805517311 -1.256716669193881 24
-3.188026403965316 9.713575849037243 2.739340773365079 50
-3.192070060278736 9.720170293390630 2.361986070610583 40
-3.191955500670010 9.719821448006750 1.988611349814350 40
-3.193021907822816 9.717346996904894 1.620035319956631 52
-3.200510424056401 9.734407756742119 1.258179101314743 50
-3.194679183439510 9.710959347567035 0.894392232076468 48
-3.197317157931073 9.713266831477640 0.535920191927745 49
-3.201037944426393 9.718858538253555 0.178607927479159 85
-3.190235046305252 9.720305346279074 -0.178573022666285 53
-3.194274148305948 9.726881960290655 -0.536548223402660 50
-3.196264924028703 9.727216491915868 -0.895786723960431 50
-3.194310287628550 9.715549934663967 -1.255741714446640 24
-3.166274415015438 9.704432652219884 2.735199668643439 49
-3.176309871567501 9.729431737893089 2.362885874827958 40
-3.171330646399629 9.714179752621733 1.986321641869832 46
-3.175443707961107 9.721027334557329 1.619722451026551 50
-3.177348597525726 9.721110257393438 1.255741714446640 56
-3.178964142745956 9.720307699936480 0.894740855047459 48
-3.179738284058589 9.716934196206276 0.535815520015259 52
-3.179092442555862 9.709227266902976 0.178328688976163 87
-3.171404273915740 9.720155348262050 -0.178468308227661 51
-3.171094294120099 9.713455776226871 -0.535501504277801 54
-3.176189579552461 9.723310681010439 -0.894915166532954 46
-3.178582040304269 9.724883980319444 -1.256229191820260 24
-3.151716222527623 9.717294509783034 2.737270221004259 52
-3.156316246397931 9.725692762386752 2.360636364284519 42
-3.153159328388655 9.715965215386571 1.985558405888325 49
-3.160302777916445 9.732191124693850 1.620661057816792 50
-3.157923519639576 9.719089228053246 1.254766759699398 50
-3.159530120587879 9.718262161627234 0.894043609105478 49
-3.159684950110244 9.712972630405407 0.535292160452829 50
-3.164617553029713 9.722367037199049 0.178468308227661 89
-3.156902356670379 9.733284271955208 -0.178607927479159 51
-3.151670198754200 9.711376696310069 -0.535082816627858 50
-3.159214371998317 9.728839365333801 -0.894915166532954 45
-3.157923519639576 9.719089228053246 -1.254766759699398 24
-3.133565942929786 9.719103189494152 2.736234944823849 50
-3.134550424978823 9.716349804271703 2.357037147415018 42
-3.138608044372608 9.728927445099696 1.987084877851337 46
-3.138457559214528 9.722653161137567 1.618158106376148 52
-3.142175970240523 9.728364043987728 1.255254237073019 56
-3.142563749731621 9.723761777413637 0.894043609105478 49
-3.141498742621402 9.714671792163529 0.535082816627858 50
-3.146412778302958 9.724070372237568 0.178398498601912 89
-3.139296148129119 9.736876058054632 -0.178573022666285 51
-3.134102649939867 9.714961809719933 -0.534978144715372 45
-3.144065670384453 9.740026574276193 -0.895438100989440 39
-3.137294920189663 9.713252022171824 -1.253304327578537 24
-3.111291790496725 9.708000352646748 2.731576202012004 47
-3.118182502857066 9.723661485788369 2.357487049523705 38
-3.120424080747159 9.730651565611256 1.986321641869832 46
-3.118465881198739 9.718711393870525 1.616593761725746 55
-3.123978327920234 9.730053226238701 1.254766759699398 52
-3.124369015749295 9.725437960584802 0.893694986134487 50
-3.122705016150494 9.714435635264808 0.534768800890400 52
-3.133110056135074 9.740968975640302 0.178607927479159 82
-3.117414916787792 9.727106021994297 -0.178293784163288 46
-3.115922300244819 9.716613327102776 -0.534768800890400 41
-3.122191473165890 9.730322216140014 -0.894043609105478 41
-3.121550994332107 9.722492967321656 -1.253791804952157 24
-3.092584254160352 9.707893668520951 2.730023287741389 49
-3.100614938029873 9.727232231820707 2.357037147415018 42
-3.099858697867800 9.724859759318791 1.984031933925313 46
-3.102099040191351 9.726021308458311 1.616906630655826 52
-3.105784364554526 9.731708532565952 1.254279282325778 56
-3.101329339184780 9.711896528960377 0.891951871279534 47
-3.105137483004003 9.717968485276533 0.534664128977914 43
-3.110014385673487 9.727375303381521 0.178258879350414 72
-3.101040150590584 9.734437470296532 -0.178328688976163 44
-3.100778579303738 9.727745606330416 -0.535082816627858 48
-3.101571584656674 9.724367575388200 -0.892997740192506 45
-3.104577297176153 9.727926290617813 -1.253791804952157 24
-3.076802420746170 9.716959914712003 2.731058563921799 49
-3.081867225467346 9.727055828177710 2.355687441088954 36
-3.079323048446501 9.719025841774004 1.981742225980795 42
-3.085716180340829 9.733303691169917 1.617219499585907 45
-3.086393678653596 9.729545638047032 1.253304327578537 49
-3.087388017167940 9.726789683991306 0.892823428707010 43
-3.090590009596034 9.730987399639092 0.535082816627858 40
-3.088792665464416 9.719448065158156 0.178014545660292 61
-3.081631039326729 9.732209347978944 -0.178189069724665 42
-3.081382760489210 9.725526749361403 -0.534664128977914 54
-3.087605181597938 9.739262185676179 -0.893869297619982 46
-3.088794607225088 9.737114323879817 -1.254279282325778 24
-3.059258494522873 9.720472401897370 2.730540925831594 45
-3.063129579059068 9.726843630518843 2.354337734762892 33
-3.061176050177884 9.720640278860170 1.980978989999288 37
-3.066942634289874 9.733022292872793 1.616280892795666 47
-3.066423081978269 9.725451508648835 1.252085634144485 45
-3.069807418183307 9.730263304186090 0.892649117221515 44
-3.071797777253876 9.730652842705487 0.534768800890400 42
-3.070619695563187 9.721010562494881 0.177944736034543 61
-3.062839480675204 9.731850609109227 -0.178084355286041 48
-3.060804294920006 9.719459785130191 -0.534036097502999 47
-3.070602268351941 9.744636236841492 -0.893869297619982 48
-3.069407725819011 9.734917589541038 -1.253304327578537 24
-3.044018630216959 9.731328266365679 2.732093840102209 40
-3.042073652028742 9.719156594544645 2.351188420002077 31
-3.050070070125943 9.744704443996056 1.984795169906819 40
-3.047589086348764 9.730819941955003 1.615029417075343 52
-3.049444305160789 9.730788611129698 1.252085634144485 45
-3.052820238047965 9.735606306116145 0.892649117221515 44
-3.054211987043892 9.734093661321618 0.534664128977914 42
-3.057242600489501 9.737802255913641 0.178154164911790 70
-3.044058566926555 9.731455938787622 -0.177979640847417 51
-3.042642790934115 9.720974943072029 -0.533826753678027 50
-3.053590001518899 9.749980604154871 -0.893869297619982 48
-3.047663434435564 9.725105845734840 -1.251354418084054 24
-3.026456112343264 9.734781499995867 2.731576202012004 43
-3.026263612690060 9.728172774575722 2.352088224219453 35
-3.028975538246082 9.736890481866698 1.982123843971547 43
-3.028252575691589 9.728579705887867 1.613777941355022 57
-3.034227188928305 9.741781936884587 1.252816850204916 43
-3.034638121406826 9.737115347990120 0.892300494250524 44
-3.033055943587005 9.726062557676585 0.533931425590513 42
-3.040837940299371 9.745032235773596 0.178189069724665 68
-3.024101047407299 9.727206289347208 -0.177805116783044 48
-3.026858401398632 9.730084771698872 -0.534036097502999 47
-3.030646887615155 9.736271684613865 -0.892126182765029 48
-3.029504656338533 9.726619630368036 -1.250866940710434 24
-3.004898730673632 9.725282793238698 2.727435097290364 45
-3.007553322662083 9.727854410497553 2.350738517893390 38
-3.009657271987527 9.734659580856718 1.980597372008535 43
-3.012436008135599 9.737624456582033 1.614403679215183 57
-3.014284920317530 9.737581243466680 1.251598156770865 47
-3.012923053687314 9.727171488542121 0.890906002366562 44
-3.017258694199421 9.735156886805996 0.534140769415485 45
-3.020271070714344 9.738864918811117 0.177979640847417 72
-3.008299923842930 9.736290673493766 -0.177874926408794 46
-3.009281658723402 9.733444669346911 -0.533931425590513 45
-3.009527446810876 9.728222604455514 -0.890906002366562 45
-3.014871928091691 9.739477559190822 -1.251841895457675 24
-2.988487417438143 9.732359263269291 2.727952735380569 50
-2.995149305489725 9.747991099118627 2.354337734762892 38
-2.988049543258779 9.724884264709317 1.977544428082511 47
-2.994275046022120 9.739091010190078 1.613777941355022 57
-2.994950263794883 9.735237979831574 1.250623202023623 47
-2.995355181243097 9.730511003696584 0.890731690881067 43
-2.996147466013186 9.727046838429377 0.533408066028084 43
-2.996201052337753 9.721189609419083 0.177560783092922 72
-2.993063288402341 9.747261122954590 -0.177979640847417 51
-2.989355976668818 9.729136173363521 -0.533408066028084 49
-2.996056982890291 9.744886885674726 -0.891951871279534 45
-2.995533960981356 9.737135317188779 -1.250866940710434 24
-2.967549743455797 9.724626191044683 2.724329268749133 45
-2.971302027158503 9.730838312449501 2.348938909458639 36
-2.971071875837950 9.730084580493871 1.977544428082511 47
-2.974963715541766 9.736745518336074 1.612526465634700 57
-2.975632975947975 9.732856911027207 1.249648247276382 47
-2.978950533006418 9.737629291405995 0.890906002366562 45
-2.978581403142219 9.730351500057955 0.533303394115598 42
-2.981572443118059 9.734052205194178 0.177700402344421 76
-2.975462905397098 9.750557531214483 -0.177944736034543 48
-2.969454509823112 9.724787802502746 -0.532884706465654 43
-2.976133463470220 9.740573981130582 -0.891080313852057 43
-2.975052591127232 9.730958557816551 -1.249404508589572 24
-2.950572557681228 9.729790728340218 2.724329268749133 45
-2.950353028536683 9.722955938623391 2.345789594697824 35
-2.956365424445349 9.742769926963126 1.979070900045523 50
-2.956817533375985 9.738142642112011 1.611900727774539 52
-2.958064341865825 9.736136180400207 1.249404508589572 50
-2.963109684545873 9.746626195261872 0.891254625337553 46
-2.957525285654980 9.722159669748729 0.532570690728196 42
-2.964578784495830 9.739241202348563 0.177700402344421 78
-2.953797937373607 9.740426721461144 -0.177665497531546 46
-2.953636920064122 9.733778078319789 -0.533094050290626 43
-2.960286148969774 9.749566368142341 -0.891428936823048 43
-2.954601917743469 9.724740000711874 -1.247942076468710 22
-2.931356791411359 9.727526861566325 2.722258716388313 43
-2.936191767200230 9.737419281641488 2.348039105241263 38
-2.937656228387274 9.742275937381493 1.977926046073263 49
-2.936393073643700 9.731941430197756 1.610023514194056 57
-2.941067081827431 9.741284145024572 1.249404508589572 52
-2.943789321204266 9.744153938971193 0.890557379395571 46
-2.942286236323513 9.733042155110407 0.532884706465654 42
-2.947576095252492 9.744400532085219 0.177700402344421 70
-2.932177410447296 9.730250035264790 -0.177386259028550 51
-2.934913970660990 9.733181669916599 -0.532780034553168 49
-2.940387790546316 9.745180921625327 -0.890557379395571 45
-2.939919572236394 9.737483409891906 -1.248917031215951 24
-2.914374598139261 9.732628225858035 2.722258716388313 43
-2.920310979832120 9.746262554472008 2.348938909458639 36
-2.917830756737630 9.737985043741300 1.976017956119498 47
-2.919403167829035 9.737051577731940 1.610023514194056 57
-2.924060862788654 9.746402436008053 1.249404508589572 49
-2.921049418138937 9.730194422514861 0.888814264540618 46
-2.928167406103372 9.747726682510647 0.533408066028084 42
-2.925959336743659 9.734209761986012 0.177421163841424 68
-2.915190463093023 9.735352827658550 -0.177386259028550 53
-2.916775371274182 9.734462794263772 -0.532570690728196 47
-2.918797163602894 9.735030378854281 -0.889162887511609 45
-2.922919988476212 9.742599703883196 -1.248917031215951 22
-2.896281650954152 9.733996691329279 2.721223440207903 47
-2.900515701126577 9.742006032257279 2.346689398915200 36
-2.899709886789990 9.739299531435769 1.975254720137992 47
-2.903532392468530 9.745918357586584 1.610649252054217 57
-2.904210147657027 9.741979243926284 1.248185815155521 45
-2.905201656215877 9.739096297716362 0.889162887511609 46
-2.910007438835383 9.748994811187648 0.533198722203112 42
-2.905531729637380 9.727805372696423 0.177211734964177 76
-2.901616352960375 9.751925877070139 -0.177595687905797 48
-2.897501392612246 9.731881828579194 -0.532152003078253 47
-2.901233024138205 9.738200359991829 -0.888988576026113 43
-2.907045736553392 9.751491037759445 -1.249404508589572 24
-2.880383630281446 9.742741997171768 2.722258716388313 45
-2.880744184722277 9.737710128772587 2.344439888371761 33
-2.881036382800855 9.738697838894320 1.974109866165733 49
-2.884836022246111 9.745288747044652 1.609710645263976 55
-2.884383788204787 9.737516478018771 1.246967121721469 50
-2.887066905174919 9.740331508126037 0.888814264540618 46
-2.889580285537136 9.742570001432497 0.532570690728196 43
-2.888549089605707 9.732861663351073 0.177211734964177 70
-2.881189979629549 9.745469430273234 -0.177386259028550 51
-2.878811898887033 9.731178469540456 -0.531837987340795 43
-2.887059926662141 9.752801337192897 -0.889860133453590 45
-2.885511381554359 9.741323169370617 -1.247454599095090 24
-2.862286016488830 9.744047298134157 2.721223440207903 47
-2.859897392673614 9.729635622843189 2.341290573610947 36
-2.864588419789101 9.745594931260159 1.974491484156486 47
-2.866150699565210 9.744623578959168 1.608772038473734 52
-2.868505179021432 9.746344497355086 1.247454599095090 50
-2.871188166458578 9.749178010081682 0.889162887511609 46
-2.870313589432873 9.739935222779296 0.532152003078253 43
-2.872123251823105 9.739806345868733 0.177246639777051 65
-2.860794992726792 9.738971423125076 -0.177176830151302 48
-2.860696932007603 9.732355729657430 -0.531628643515823 43
-2.868347087018776 9.752091074988527 -0.889337198997104 48
-2.861779492786915 9.723492575907592 -1.244529734853366 24
-2.844268782005844 9.739259390450917 2.718635249756878 42
-2.846250454871124 9.739727453423045 2.342640279937010 36
-2.848175164812715 9.746313715087371 1.973728248174979 50
-2.845296126245205 9.730153924231146 1.605643349172930 52
-2.852077160599145 9.747027899176979 1.246967121721469 50
-2.853071333256421 9.744115479623986 0.888291330084132 47
-2.854449032365329 9.742515196756329 0.532047331165767 45
-2.857383050467632 9.746224774590830 0.177281544589926 68
-2.843251217430303 9.735775076517429 -0.177037210899804 48
-2.844285401329965 9.733003137968122 -0.531419299690852 45
-2.850229018924887 9.747023101615630 -0.888465641569627 45
-2.849847233186635 9.739407079865661 -1.245992166974228 24
-2.822421347802684 9.727510743001940 2.713976506945033 45
-2.828160388101457 9.740937345222493 2.341740475719635 36
-2.828423301745797 9.741842889811652 1.971820158221214 49
-2.827758366438837 9.733208138647733 1.605330480242849 50
-2.834506896566679 9.750084689863497 1.246723383034659 47
-2.833277672895360 9.739514760775851 0.887419772656656 46
-2.836882574984390 9.745564645674280 0.531942659253281 49
-2.836453671886624 9.737757667615154 0.177037210899804 63
-2.829040896933864 9.750325102501280 -0.177211734964177 42
-2.828964431060653 9.743706683242127 -0.531733315428309 50
-2.828766050506209 9.736676609957778 -0.887071149685665 41
-2.828411182810621 9.729116765799274 -1.244042257479745 24
-2.805439348580892 9.732421979198419 2.713976506945033 45
-2.810614858903255 9.743986174294006 2.341290573610947 36
-2.809783949132918 9.741105532967925 1.970675304248955 50
-2.811314216161557 9.740026581753495 1.605643349172930 52
-2.814180511682789 9.743574149756036 1.245260950913797 47
-2.816274706185717 9.744444926541306 0.887419772656656 44
-2.817094674362625 9.740907920907260 0.531419299690852 45
-2.816118451073716 9.731168111024861 0.176827782022557 63
-2.809249698321755 9.745640561729946 -0.177037210899804 46
-2.807525880379981 9.733277142450623 -0.530895940128422 50
-2.813978119271872 9.749255890578718 -0.887768395627646 45
-2.811426371428647 9.734038453778588 -1.244042257479745 24
-2.788448803504329 9.737303568749704 2.713976506945033 45
-2.791993666752284 9.743256750308143 2.339940867284884 38
-2.788992523797954 9.732783622558381 1.968003978313683 49
-2.794310389608492 9.744918413295350 1.605643349172930 52
-2.796075491837577 9.744654783188370 1.244773473540176 45
-2.797613624279830 9.743600361654536 0.886896838200170 47
-2.798434727625283 9.740051039526312 0.531105283953394 49
-2.799682610729120 9.737990186336519 0.176862686835431 57
-2.792236076674650 9.750528781459670 -0.177037210899804 46
-2.790533839584759 9.738162372382558 -0.530895940128422 47
-2.794761472707276 9.746491527009420 -0.887071149685665 45
-2.792243001443438 9.731298099522359 -1.243067302732504 24
-2.773564164301876 9.749588001456086 2.716047059305853 45
-2.771249394462435 9.734994916986025 2.336791552524069 38
-2.775764027153069 9.750854163138031 1.970675304248955 47
-2.775133360492572 9.742181354700827 1.604391873452608 52
-2.775798605541981 9.738065709151691 1.243311041419314 45
-2.781696585726877 9.752300220798507 0.887245461171160 44
-2.778690011941660 9.735317593126853 0.530581924390965 45
-2.781584001085064 9.739016106541539 0.176792877209682 63
-2.771930967590846 9.743847014727596 -0.176827782022557 48
-2.770252304690042 9.731492286048001 -0.530267908653507 47
-2.779929721682375 9.759019111479988 -0.887768395627646 41
-2.773077767857663 9.728520457525390 -1.242092347985263 24
-2.752340858246109 9.739541564854054 2.711905954584212 43
-2.754254410838823 9.739816829921752 2.336791552524069 40
-2.757672905722201 9.751905587542362 1.969912068267448 43
-2.754898691955225 9.735605577567238 1.602514659872125 52
-2.760420759813941 9.748625548783425 1.244042257479745 43
-2.761955595540726 9.747555723925021 0.886373903743684 45
-2.761149633439835 9.738230978281319 0.530477252478479 43
-2.766219445606440 9.749627337535413 0.176897591648306 59
-2.753289115504397 9.742897105267444 -0.176723067583933 51
-2.755437350895956 9.744000038064005 -0.530686596303450 47
-2.760180353344776 9.754270573210487 -0.886896838200170 43
-2.756094081507022 9.733345571434233 -1.242092347985263 24
-2.732205303816049 9.733170709226723 2.708800126042982 45
-2.737778039788670 9.746485201732833 2.337241454632757 38
-2.737462862321359 9.745363170481056 1.967622360322930 47
-2.737902667431909 9.740398952227991 1.602514659872125 52
-2.742864502362560 9.751517603241449 1.243798518792935 45
-2.742239648567515 9.742772054425414 0.885502346316207 47
-2.743607551341830 9.741112797314477 0.530372580565993 42
-2.744859232873327 9.739042753219758 0.176618353145309 70
-2.735739920874262 9.745762380566823 -0.176688162771058 48
-2.737346427253325 9.744948661835338 -0.530477252478479 49
-2.740456036934862 9.749482853539408 -0.886025280772693 45
-2.738026998831056 9.734319159496756 -1.241604870611642 24
-2.715213563501513 9.737924480181954 2.708800126042982 45
-2.720239325577028 9.749371633681648 2.336791552524069 38
-2.716228810358307 9.734997897171700 1.964569416396905 43
-2.720898302782248 9.745162655944313 1.602514659872125 52
-2.723704067022212 9.748642456462305 1.242823564045694 45
-2.724158209825781 9.743705708501611 0.885153723345216 45
-2.730906809838853 9.761273686295489 0.531209955865880 50
-2.724622611330962 9.732264665393284 0.176408924268062 61
-2.719800369337015 9.754374740092180 -0.176757972396807 48
-2.717113521936939 9.738168714491927 -0.529849221003563 47
-2.722900021006548 9.752332005003494 -0.885850969287198 43
-2.723704067022212 9.748642456462305 -1.242823564045694 27
-2.697182322077287 9.738925045369355 2.707764849862572 45
-2.701137525993250 9.746592670605922 2.334991944089319 40
-2.700282558755281 9.743507667589597 1.965332652378412 47
-2.704941442717334 9.753703740458239 1.603140397732286 52
-2.705623682979192 9.749555760846460 1.242336086672073 45
-2.707681207789882 9.750365159711933 0.885328034830712 45
-2.709053255248292 9.748706088773057 0.530267908653507 43
-2.706560982918664 9.733152015785510 0.176339114642313 70
-2.704906530630566 9.766815443255862 -0.176897591648306 46
-2.697446039684553 9.733272573774954 -0.529325861441134 45
-2.705874852111718 9.757069506000370 -0.885850969287198 43
-2.703500376184623 9.741904549733377 -1.241361131924832 27
-2.682230051346758 9.751068354006611 2.709835402223392 47
-2.680502203635550 9.738140165778644 2.331842629328504 42
-2.684835897224134 9.753884273559613 1.966477506350671 49
-2.684766466873974 9.746983186269949 1.601263184151803 52
-2.685965948749402 9.744694481529978 1.241117393238022 43
-2.690659494865502 9.755076101878084 0.885328034830712 45
-2.688314688315116 9.739942535917395 0.529535205266106 45
-2.690634068570037 9.741716080880661 0.176408924268062 63
-2.683613243996836 9.756096858579102 -0.176618353145309 51
-2.682574367662144 9.745668241566115 -0.529744549091077 42
-2.688841440652805 9.761777285271419 -0.885850969287198 43
-2.682801024222203 9.733212123539174 -1.239654961117160 33
-2.661134244972663 9.740826397113352 2.705694297501752 43
-2.666071328381538 9.752202497619187 2.334092139871943 38
-2.668325796487647 9.760449099749124 1.966859124341424 50
-2.663580702147352 9.736411225983092 1.598760232711160 52
-2.672099045316365 9.760855396410216 1.242579825358884 43
-2.670997542424113 9.750149376698994 0.884456477403235 49
-2.672367258724238 9.748472082701319 0.529744549091077 47
-2.675743525748730 9.754111092057281 0.176548543519560 65
-2.662365624801761 9.745333744747848 -0.176339114642313 46
-2.663454144235775 9.742629119183531 -0.529325861441134 45
-2.670222624916511 9.760690006558283 -0.885328034830712 45
-2.667381726483912 9.743623599908121 -1.240386177177591 33
-2.643117531586968 9.741727223270148 2.704659021321342 47
-2.647514641038366 9.751198847537770 2.332742433545880 38
-2.648714476834684 9.755618025151724 1.964951034387658 52
-2.646583410588211 9.741045219538849 1.598760232711160 52
-2.652455057398834 9.755926440304153 1.241361131924832 45
-2.651360991722246 9.745183763314319 0.883584919975758 46
-2.653250228342655 9.745412939337626 0.529325861441134 45
-2.656087095706062 9.749119424095950 0.176374019455187 68
-2.644829137514209 9.748035682072171 -0.176304209829438 51
-2.648539293861372 9.754972799633046 -0.529744549091077 43
-2.651093417039446 9.757644800948650 -0.884630788888730 45
-2.650371841174684 9.748264216514400 -1.240386177177591 30
-2.624603178109930 9.740729517417078 2.703106107050727 43
-2.632520873519096 9.763330953353531 2.334542041980631 36
-2.628617051038113 9.748852697455025 1.962661326443140 52
-2.630607246140471 9.749463884424255 1.599385970571320 52
-2.634388802350558 9.756708062225226 1.240873654551212 47
-2.632789314262888 9.744026167680067 0.883061985519273 47
-2.638322459876639 9.757740994227033 0.529744549091077 45
-2.635411693873976 9.740228310341839 0.176129685765065 60
-2.629892608858277 9.760360261847504 -0.176443829080936 51
-2.627349961706984 9.744153394740383 -0.528907173791190 45
-2.634059084938843 9.762256967750913 -0.884630788888730 45
-2.633353882373206 9.752875138217281 -1.240386177177591 30
-2.608097757684221 9.747161675640383 2.703623745140932 43
-2.611444305328774 9.752851284943745 2.330942825111129 42
-2.610074708370971 9.747736308751257 1.961516472470880 50
-2.615632284053109 9.761672578003635 1.600637446291642 52
-2.613757330193895 9.747869539857948 1.239167483743540 50
-2.618360479362572 9.758228009826672 0.883933542946749 46
-2.616108591906439 9.743041539475357 0.528697829966219 47
-2.619445598366386 9.748675525168688 0.176199495390814 56
-2.612853569677402 9.764935422141988 -0.176443829080936 51
-2.607239660897565 9.737148376112810 -0.528279142316275 42
-2.615985392395455 9.762990396277845 -0.884282165917740 45
-2.613243215848852 9.745952177635317 -1.238923745056729 33
-2.592783740612780 9.751246439257091 2.703623745140932 45
-2.593114836959091 9.745642003207580 2.328243412459003 42
-2.594254969150332 9.749926934986847 1.961134854480128 49
-2.595721058398833 9.748589346091274 1.597821625920918 55
-2.599975500009625 9.757717694910736 1.239898699803970 45
-2.602002433248136 9.758478622539592 0.883584919975758 48
-2.598741404266943 9.739419914016555 0.528279142316275 45
-2.601033948630480 9.741186062002939 0.175990066513567 62
-2.595970077886991 9.763229991727256 -0.176339114642313 46
-2.592968495338809 9.745092010966161 -0.528488486141247 43
-2.601671791282919 9.770938146247413 -0.884630788888730 45
-2.595886684597775 9.742372355504546 -1.237948790309488 27
-2.574774349931832 9.752021155349015 2.702588468960522 43
-2.575105947189417 9.746384821559559 2.327343608241627 47
-2.579741718828855 9.763930512987189 1.963042944433893 50
-2.576682875713850 9.745465874625566 1.596570150200596 50
-2.582433365226125 9.760321587506454 1.239654961117160 49
-2.584966720624875 9.763005108185354 0.883584919975758 47
-2.583785117604843 9.751663297644804 0.528697829966219 47
-2.587103422746970 9.757308318272766 0.176199495390814 62
-2.574842271646406 9.752278410512931 -0.176059876139316 46
-2.575956160507922 9.749602749812805 -0.528488486141247 43
-2.583086482365739 9.769685436407388 -0.884107854432244 46
-2.578371338698046 9.744969135147025 -1.237705051622678 24
-2.553830776685529 9.741550502178081 2.698447364238881 45
-2.561552941214406 9.764059056826284 2.330492923002441 40
-2.558212802235982 9.751327204316578 1.959608382517115 46
-2.560171514174499 9.751858819795411 1.596883019130677 52
-2.565394465829217 9.764813915895706 1.239654961117160 43
-2.562350603764180 9.746305854735741 0.881667493635310 44
-2.565236820881014 9.750363408491877 0.528383814228761 49
-2.568033270012654 9.754073612810288 0.176059876139316 58
-2.559845825778743 9.764494819808506 -0.176199495390814 46
-2.558935978867834 9.754083789678651 -0.528488486141247 43
-2.564513476026148 9.768397633208412 -0.883584919975758 45
-2.563376853193881 9.757134156622488 -1.238680006369919 24
-2.536824682560517 9.745992938248209 2.698447364238881 45
-2.543525115161287 9.764743308938183 2.329593118785066 38
-2.537725504002888 9.742478258785599 1.956937056581844 43
-2.542150887872584 9.752489300444246 1.596257281270516 50
-2.546844597400389 9.763514047238683 1.238923745056729 45
-2.545839426785056 9.752690943722559 0.881841805120805 48
-2.550739313039509 9.764487808299366 0.528907173791190 45
-2.546453543216701 9.741128671238947 0.175745732823445 56
-2.541792228757363 9.765077296141644 -0.176129685765065 46
-2.538887315393595 9.746938521409323 -0.527860454666331 43
-2.547460508571155 9.772858673206208 -0.883584919975758 45
-2.545842494470072 9.759672412752261 -1.238436267683109 27
-2.520777601998061 9.754146490356794 2.699482640419291 47
-2.522575153176835 9.754074377655037 2.325993901915564 43
-2.521700934440375 9.750694024618962 1.957700292563350 47
-2.526115576943141 9.760736074453469 1.596883019130677 52
-2.526813990846564 9.756414123777704 1.237461312935867 45
-2.530813358625057 9.764834077809729 0.882539051062787 45
-2.531687496298141 9.761191645547370 0.528488486141247 52
-2.528443450505147 9.741687106841725 0.175675923197696 60
-2.524244745150757 9.767562597429320 -0.176094780952191 51
-2.520871692698137 9.747487584715413 -0.527651110841360 43
-2.527903825515712 9.767645743398033 -0.882713362548282 48
-2.522832404885018 9.741040613241912 -1.235511403441385 27
-2.504229679463778 9.760402461401959 2.700000278509497 49
-2.504577984455862 9.754687209574076 2.325094097698189 43
-2.504190689295848 9.753178794516861 1.957318674572597 46
-2.506126499108036 9.753650724253442 1.595005805550194 50
-2.509287652460927 9.758886829509624 1.237217574249057 43
-2.511780672215115 9.761518164989905 0.881841805120805 46
-2.511160815767573 9.752056254509784 0.527755782753845 43
-2.513433132909082 9.753830979744736 0.175815542449194 64
-2.503714534680963 9.758394650198619 -0.175850447262069 48
-2.504848682879384 9.755741510324926 -0.527860454666331 43
-2.512835521712253 9.779761721924926 -0.883410608490263 48
-2.505332904387702 9.743506393214101 -1.235267664754575 24
-2.482899209555840 9.747909597504997 2.695341535697651 45
-2.486105026814909 9.753378583814545 2.323744391372125 42
-2.488619141259577 9.763241847722306 1.958463528544856 50
-2.485193357432311 9.742697195121444 1.592502854109550 50
-2.492251368595104 9.763251496796808 1.237217574249057 43
-2.493753533936203 9.762026381945715 0.881493182149815 48
-2.494136450645071 9.756424201485578 0.527755782753845 43
-2.498388121218490 9.765952108055069 0.175955161700692 64
-2.485691949156306 9.758873946379866 -0.175780637636320 46
-2.487817895389298 9.760098434943174 -0.527860454666331 42
-2.493300523053465 9.774479695875915 -0.882539051062787 45
-2.489305444991563 9.751711010393976 -1.235755142128195 33
-2.464461412950227 9.746609503163118 2.693788621427036 50
-2.470512512996528 9.763370389367426 2.325094097698189 43
-2.468685683157528 9.756150828137651 1.956173820600337 43
-2.468185366492329 9.747019834610272 1.592502854109550 50
-2.475695122429139 9.769510691931687 1.237461312935867 47
-2.474752757760120 9.758638906462235 0.880795936207833 46
-2.476121899894882 9.756890646698590 0.527546438928874 43
-2.476417206668736 9.750916075497274 0.175606113571947 66
-2.469636127099198 9.767074793402793 -0.175850447262069 48
-2.472739299179510 9.772170562678836 -0.528279142316275 42
-2.473302539228251 9.767227872803549 -0.881493182149815 50
-2.472769345250771 9.757965081501988 -1.235998880815006 27
-2.445565421154457 9.743401028774095 2.691718069066216 49
-2.452993720554772 9.765777345958226 2.324644195589501 42
-2.449262845174178 9.750924108476577 1.954265730646572 40
-2.452132988606148 9.755144340071965 1.593128591969711 50
-2.454766185144859 9.758415780660078 1.235511403441385 45
-2.456257796153853 9.757146974460367 0.880273001751347 47
-2.457137492481886 9.753450449808593 0.527127751278930 43
-2.458417188213426 9.751345339731012 0.175536303946198 66
-2.452585612940436 9.771370243287034 -0.175850447262069 46
-2.449841139002595 9.753226392710546 -0.527023079366444 43
-2.456251752311422 9.771529721547722 -0.881493182149815 45
-2.455250455451655 9.760340897207850 -1.235755142128195 24
-2.430424382352090 9.755152699201519 2.693788621427036 49
-2.432645395872446 9.756807771818957 2.321494880828687 43
-2.432240550294239 9.755184024892857 1.954265730646572 42
-2.436059766447090 9.763242491633930 1.593754329829872 47
-2.436768987237496 9.758833373148541 1.235023926067764 45
-2.438741614897307 9.759486135609826 0.880098690265852 48
-2.439141709285063 9.753848917935530 0.526918407453958 43
-2.442365070488998 9.759500978806827 0.175606113571947 66
-2.436011059227154 9.777576308178242 -0.175885352074943 51
-2.429915740799288 9.745859723296407 -0.526395047891529 45
-2.439675823246194 9.777734927279162 -0.881667493635310 48
-2.438692625672259 9.766537208453965 -1.235998880815006 30
-2.414786008792335 9.765005813499746 2.695341535697651 45
-2.413740289271292 9.753471979719926 2.319695272393936 43
-2.416625732648097 9.765131515441237 1.955410584618831 43
-2.416166738823293 9.755974658483156 1.591877116249389 50
-2.417822717340197 9.755364290681124 1.234048971320523 47
-2.423622954103521 9.771462853385991 0.880795936207833 47
-2.420670871953712 9.752275854604386 0.526604391716501 42
-2.426291970035625 9.767630277920501 0.175675923197696 68
-2.415101914814791 9.766283286590355 -0.175606113571947 51
-2.412902314401768 9.750085880376124 -0.526395047891529 45
-2.423564679989104 9.785845993676586 -0.882016116606301 46
-2.417822717340197 9.755364290681124 -1.234048971320523 30
-2.393134351142547 9.750443857451060 2.690165154795601 45
-2.396248761902313 9.755777405388670 2.319245370285248 42
-2.398642087182453 9.765521280508382 1.954647348637325 43
-2.397721094766727 9.754421982405239 1.590938509459148 45
-2.403163639909942 9.769207455890502 1.235267664754575 43
-2.403707264025936 9.764070217279453 0.879750067294861 48
-2.404124028477246 9.758425140256465 0.526709063628987 49
-2.409719241155544 9.773791632919364 0.175710828010570 62
-2.397099554535473 9.766599445643440 -0.175536303946198 51
-2.397787190331481 9.762040763996383 -0.526813735541473 45
-2.404579117196353 9.782321826506946 -0.881318870664319 46
-2.400792720770330 9.759569326987689 -1.234048971320523 33
-2.377484605680938 9.760236717744741 2.691718069066216 50
-2.381064221168447 9.767517974461587 2.321044978719999 42
-2.380664445494880 9.765878028742103 1.953884112655819 43
-2.380224593947619 9.756672842422175 1.590625640529068 47
-2.386109504798242 9.773386886209062 1.235267664754575 43
-2.384770545140776 9.760508776918369 0.879052821352880 45
-2.387088710584100 9.762606263190840 0.526709063628987 43
-2.390280598248732 9.768270556635530 0.175536303946198 66
-2.378156920259097 9.762996756407425 -0.175396684694699 51
-2.381691625909677 9.770091692143264 -0.527023079366444 43
-2.383724397863669 9.771018733103396 -0.879924378780357 46
-2.383755410969514 9.763744633953529 -1.234048971320523 27
-2.359538302654149 9.760615815939905 2.690682792885806 49
-2.364929530159841 9.775447035423387 2.321944782937375 42
-2.360846292912701 9.758568955576422 1.951594404711300 43
-2.364586858814175 9.766571979654797 1.591564247319309 50
-2.368113196644399 9.773678006601717 1.234780187380954 43
-2.366323094443030 9.758847280828581 0.878529886896394 47
-2.370046121204761 9.766757647533460 0.526709063628987 40
-2.368509032416068 9.752995354698097 0.175187255817452 74
-2.362523283042042 9.772963675159472 -0.175501399133323 48
-2.362757421347022 9.766468613705490 -0.526604391716501 43
-2.368073628984928 9.780973561784133 -0.880447313236843 50
-2.368580648913772 9.775607275848973 -1.235023926067764 27
-2.343752476713175 9.762431652402203 2.690165154795601 43
-2.345474086992923 9.762096444834169 2.317895663959185 45
-2.344597370753320 9.758447464641545 1.950831168729794 43
-2.348780839555917 9.768353577676711 1.591251378389229 52
-2.347649190650205 9.756155758262924 1.232099061826041 47
-2.352856885839773 9.770300308774404 0.879227132838376 49
-2.351893943715968 9.758818454358082 0.526081032154071 43
-2.354123858564010 9.760591673641098 0.175257065443201 68
-2.348569498120497 9.782495990562643 -0.175606113571947 51
-2.344613840782746 9.758516014542222 -0.525976360241586 43
-2.353172586764861 9.786618431867558 -0.880621624722338 46
-2.350435717879463 9.767735765097658 -1.233561493946903 27
-2.329396473513912 9.777782953179971 2.693270983336831 47
-2.325268819749426 9.752905938989361 2.314746349198371 42
-2.328472731362524 9.766344148083288 1.951594404711300 43
-2.329894437007437 9.764752337971233 1.589999902668906 52
-2.332923179648842 9.769892361352676 1.233317755260093 49
-2.336264004998144 9.776329761146108 0.879401444323871 48
-2.332070683433296 9.751253533343712 0.525453000679156 43
-2.337084835513286 9.764685526560804 0.175257065443201 78
-2.329175127232219 9.776853838740028 -0.175431589507574 51
-2.328504854308351 9.766478881782238 -0.526185704066557 43
-2.334700914187305 9.784896623709692 -0.880098690265852 45
-2.330156867578112 9.758307508750281 -1.231855323139231 24
-2.307955633472468 9.770956362293624 2.690165154795601 47
-2.309678460785656 9.770627466994227 2.317895663959185 43
-2.309266770766908 9.768885895657194 1.951212786720547 40
-2.307505012791974 9.753828891557454 1.587496951228263 52
-2.314619389203862 9.776284934665775 1.233561493946903 45
-2.316571777552586 9.776919624131029 0.879052821352880 47
-2.314266985768275 9.759599552141136 0.525662344504128 42
-2.318333689520032 9.769154408906058 0.175257065443201 74
-2.308561875387197 9.773522946853529 -0.175291970256076 53
-2.309290812210661 9.768987598121267 -0.526081032154071 47
-2.315452283029511 9.787422020769384 -0.879924378780357 46
-2.312332667815595 9.766626482843343 -1.232342800512851 24
-2.287812908804243 9.761803411873480 2.686541688164165 50
